ply
format ascii 1.0
element vertex 1473
property float x
property float y
property float z
end_header
-1.4916358 -0.810333 -2.9764874
-1.5217779 -0.810333 -2.974615
-1.5523906 -0.810333 -2.9753714
-1.5826836 -0.810333 -2.974341
-1.6128747 -0.810333 -2.972743
-1.5959413 -1.020333 -2.9714315
-1.5814445 -0.99033296 -2.974028
-1.5970025 -0.960333 -2.9712415
-1.5789232 -0.930333 -2.9744797
-1.5979302 -0.90033305 -2.9710753
-1.5886457 -0.87033296 -2.9727383
-1.5921793 -0.840333 -2.9721053
-1.5791914 -0.810333 -2.9744315
-1.5825906 -0.9933431 -2.9738228
-1.5825906 -0.9864868 -2.9738228
-1.5825906 -0.93993306 -2.9738228
-1.5825906 -0.92545164 -2.9738228
-1.5825906 -0.81514907 -2.9738228
-1.4008946 -0.78033304 -2.980347
-1.4312327 -0.78033304 -2.9795675
-1.4615991 -0.78033304 -2.9789488
-1.49154 -0.78033304 -2.9759524
-1.5221667 -0.78033304 -2.9767861
-1.5529335 -0.78033304 -2.9784024
-1.5825777 -0.78033304 -2.9737506
-1.613359 -0.78033304 -2.9754462
-1.4017136 -0.750333 -2.9849186
-1.431171 -0.750333 -2.9792237
-1.4615357 -0.750333 -2.9785948
-1.4921577 -0.750333 -2.9794014
-1.5222964 -0.750333 -2.977511
-1.5531447 -0.750333 -2.9795818
-1.5833931 -0.750333 -2.9783034
-1.6135559 -0.750333 -2.976546
-1.4010203 -0.72033304 -2.9810486
-1.4313679 -0.72033304 -2.9803233
-1.4614065 -0.72033304 -2.9778733
-1.4920664 -0.72033304 -2.9788923
-1.5225039 -0.72033304 -2.978669
-1.5522349 -0.72033304 -2.9745016
-1.5829711 -0.72033304 -2.9759462
-1.6137521 -0.72033304 -2.9776418
-1.4010708 -0.690333 -2.9813306
-1.4312761 -0.690333 -2.979811
-1.4616363 -0.690333 -2.9791565
-1.4916878 -0.690333 -2.9767778
-1.5223396 -0.690333 -2.9777513
-1.552422 -0.690333 -2.975547
-1.5828803 -0.690333 -2.9754398
-1.613661 -0.690333 -2.9771333
-1.4003646 -0.66033304 -2.9773872
-1.4299972 -0.66033304 -2.97267
-1.4606555 -0.66033304 -2.9736795
-1.4909811 -0.66033304 -2.9728322
-1.5210733 -0.66033304 -2.9706817
-1.5514872 -0.66033304 -2.9703274
-1.5822811 -0.66033304 -2.972094
-1.6121309 -0.66033304 -2.9685905
-1.3999794 -0.630333 -2.975237
-1.4305136 -0.630333 -2.975553
-1.4616745 -0.630333 -2.9793684
-1.4907243 -0.630333 -2.9713984
-1.5208385 -0.630333 -2.9693706
-1.55179 -0.630333 -2.9720178
-1.5819929 -0.630333 -2.9704852
-1.6124284 -0.630333 -2.970251
-1.5828962 -0.78033304 -2.973768
-1.551074 -0.750333 -2.9794679
-1.5736132 -0.72033304 -2.9754307
-1.5737069 -0.690333 -2.975414
-1.3914359 -0.66033304 -2.9775836
-1.6112595 -0.66033304 -2.9686878
-1.4042892 -0.630333 -2.9752815
-1.6030564 -0.630333 -2.9701571
-1.5825906 -0.78461874 -2.9738228
-1.5530605 -0.76311994 -2.979112
-1.5825906 -0.7798299 -2.9738228
-1.5530605 -0.74768895 -2.979112
-1.5825906 -0.677299 -2.9738228
-1.4001212 -0.63789713 -2.976028
-1.4001212 -0.62998587 -2.976028
-1.4054103 -0.62147546 -3.005558
-1.4106996 -0.6193401 -3.035088
-1.4159887 -0.6191679 -3.0646183
-1.421278 -0.619784 -3.0941484
-1.4265671 -0.62031347 -3.1236784
-1.4318564 -0.62205076 -3.1532083
-1.4349403 -0.62136465 -3.0002687
-1.4402297 -0.6174538 -3.0297987
-1.445519 -0.6164036 -3.059329
-1.450808 -0.61699784 -3.088859
-1.4560974 -0.6178538 -3.1183891
-1.4613864 -0.6191953 -3.1479192
-1.4644704 -0.6257824 -2.9949796
-1.4697597 -0.62015885 -3.0245097
-1.475049 -0.61894023 -3.05404
-1.4803381 -0.6192532 -3.08357
-1.4856274 -0.62087435 -3.1131
-1.4909165 -0.62281066 -3.14263
-1.4940004 -0.6240579 -2.9896903
-1.4992898 -0.6206794 -3.0192204
-1.5045791 -0.6199873 -3.0487506
-1.5098681 -0.6197781 -3.0782807
-1.5151575 -0.6208874 -3.1078107
-1.5204465 -0.6190083 -3.1373408
-1.5235305 -0.62339884 -2.9844012
-1.5288198 -0.6183063 -3.0139313
-1.5341091 -0.6170618 -3.0434613
-1.5393982 -0.61761713 -3.0729914
-1.5446875 -0.6181117 -3.1025214
-1.5499766 -0.62014246 -3.1320515
-1.5530605 -0.62656343 -2.979112
-1.5583498 -0.6208731 -3.008642
-1.5636392 -0.61930805 -3.0381722
-1.5689282 -0.62040967 -3.0677023
-1.5742176 -0.6160717 -3.0972323
-1.5795066 -0.6173793 -3.1267624
-1.5825906 -0.62884074 -2.9738228
-1.5878799 -0.62240696 -3.0033526
-1.5931692 -0.62064564 -3.0328832
-1.5984583 -0.6158147 -3.0624132
-1.6037476 -0.6182551 -3.091943
-1.6090367 -0.6205759 -3.121473
-1.61741 -0.62079614 -2.9980636
-1.6226993 -0.61888665 -3.0275939
-1.6279883 -0.61882913 -3.057124
-1.6332777 -0.61965317 -3.086654
-1.6385667 -0.6165683 -3.116184
-1.6418562 -1.260333 -2.9643915
-1.6724167 -1.260333 -2.9648552
-1.701966 -1.260333 -2.9596734
-1.7340968 -1.260333 -2.9689038
-1.7632346 -1.260333 -2.9614255
-1.7952199 -1.260333 -2.969844
-1.8252244 -1.260333 -2.9672027
-1.8565071 -1.260333 -2.9716988
-1.6426284 -1.230333 -2.968702
-1.6732943 -1.230333 -2.9697552
-1.7034779 -1.230333 -2.968114
-1.7342477 -1.230333 -2.9697464
-1.7646472 -1.230333 -2.9693115
-1.7958236 -1.230333 -2.9732137
-1.8260589 -1.230333 -2.9718623
-1.8578081 -1.230333 -2.9789636
-1.6429687 -1.2003329 -2.9706025
-1.673754 -1.2003329 -2.9723217
-1.7040989 -1.2003329 -2.9715817
-1.7349145 -1.2003329 -2.9734704
-1.7653434 -1.2003329 -2.9731984
-1.7960744 -1.2003329 -2.974615
-1.826791 -1.2003329 -2.9759498
-1.8580959 -1.2003329 -2.98057
-1.643224 -1.1703329 -2.9720278
-1.6740899 -1.1703329 -2.9741971
-1.7042034 -1.1703329 -2.9721653
-1.7353652 -1.1703329 -2.975985
-1.7657154 -1.1703329 -2.9752753
-1.7963512 -1.1703329 -2.9761598
-1.826957 -1.1703329 -2.976876
-1.8582397 -1.1703329 -2.981372
-1.6432185 -1.1403329 -2.9719975
-1.674098 -1.1403329 -2.9742424
-1.7042053 -1.1403329 -2.972175
-1.7352877 -1.1403329 -2.9755528
-1.7654576 -1.1403329 -2.973837
-1.7964475 -1.1403329 -2.9766974
-1.8267548 -1.1403329 -2.975747
-1.8584254 -1.1403329 -2.98241
-1.6432416 -1.110333 -2.9721262
-1.6737678 -1.110333 -2.972399
-1.7042997 -1.110333 -2.972703
-1.7352164 -1.110333 -2.9751549
-1.7653887 -1.110333 -2.9734514
-1.7966895 -1.110333 -2.9780488
-1.8269329 -1.110333 -2.976741
-1.8586125 -1.110333 -2.9834547
-1.6432378 -1.080333 -2.972105
-1.6741054 -1.080333 -2.9742835
-1.7041404 -1.080333 -2.9718132
-1.7351346 -1.080333 -2.9746985
-1.7657585 -1.080333 -2.9755166
-1.7965472 -1.080333 -2.9772544
-1.8272638 -1.080333 -2.9785893
-1.8582871 -1.080333 -2.9816377
-1.6432333 -1.0503329 -2.972079
-1.6739802 -1.0503329 -2.973585
-1.7040386 -1.0503329 -2.9712443
-1.7353015 -1.0503329 -2.9756298
-1.7652059 -1.0503329 -2.9724307
-1.7967339 -1.0503329 -2.9782963
-1.8269048 -1.0503329 -2.976584
-1.8584638 -1.0503329 -2.9826236
-1.6353476 -1.260333 -2.9643734
-1.7849562 -1.260333 -2.9680538
-1.6185768 -1.230333 -2.9673772
-1.7724688 -1.230333 -2.9702907
-1.7554319 -1.2003329 -2.9733422
-1.7405922 -1.1703329 -2.976
-1.7467189 -1.1403329 -2.9749026
-1.7507188 -1.110333 -2.9741862
-1.7458827 -1.080333 -2.9750524
-1.7539401 -1.0503329 -2.9736092
-1.6310723 -1.2759427 -2.9041843
-1.6363616 -1.2742054 -2.9337144
-1.6416507 -1.2615447 -2.9632444
-1.6606023 -1.2773079 -2.898895
-1.6658914 -1.2749377 -2.928425
-1.6711807 -1.2676357 -2.9579551
-1.6901324 -1.2711561 -2.893606
-1.6954217 -1.2766563 -2.9231358
-1.7007108 -1.2658145 -2.9526658
-1.7196624 -1.2782303 -2.8883166
-1.7249517 -1.2724311 -2.9178467
-1.7302408 -1.2752086 -2.9473767
-1.7491925 -1.2734026 -2.8830276
-1.7544818 -1.2735263 -2.9125576
-1.7597709 -1.2715547 -2.9420874
-1.7787225 -1.273807 -2.8777382
-1.7840118 -1.2728032 -2.9072683
-1.7893009 -1.2719134 -2.9367983
-1.7945902 -1.2640551 -2.9663284
-1.8082528 -1.273001 -2.872449
-1.8135419 -1.2737722 -2.901979
-1.8188312 -1.2733017 -2.931509
-1.8241203 -1.2652935 -2.961039
-1.8377826 -1.2668492 -2.8671598
-1.8430719 -1.2742729 -2.89669
-1.848361 -1.2681286 -2.92622
-1.8536503 -1.2716002 -2.95575
-1.7650602 -1.2125342 -2.9716175
-1.6432548 -1.020333 -2.9721994
-1.6742105 -1.020333 -2.9748707
-1.7044978 -1.020333 -2.973809
-1.735214 -1.020333 -2.975142
-1.7656586 -1.020333 -2.9749587
-1.7963748 -1.020333 -2.9762917
-1.8270919 -1.020333 -2.9776294
-1.8586264 -1.020333 -2.9835317
-1.6436265 -0.99033296 -2.974274
-1.6742022 -0.99033296 -2.974825
-1.7041388 -0.99033296 -2.9718044
-1.7356744 -0.99033296 -2.977712
-1.7655714 -0.99033296 -2.974471
-1.7968342 -0.99033296 -2.9788568
-1.8272777 -0.99033296 -2.9786663
-1.8585405 -0.99033296 -2.9830518
-1.6435182 -0.960333 -2.9736705
-1.6737299 -0.960333 -2.972188
-1.7045987 -0.960333 -2.9743721
-1.7353354 -0.960333 -2.9758196
-1.7657585 -0.960333 -2.9755166
-1.7967939 -0.960333 -2.9786313
-1.8277538 -0.960333 -2.981324
-1.8584771 -0.960333 -2.9826977
-1.6434441 -0.930333 -2.9732563
-1.6741319 -0.930333 -2.9744315
-1.7042396 -0.930333 -2.9723668
-1.735501 -0.930333 -2.9767442
-1.765863 -0.930333 -2.976099
-1.7966616 -0.930333 -2.9778936
-1.828197 -0.930333 -2.9837995
-1.8584206 -0.930333 -2.9823828
-1.643446 -0.90033305 -2.973267
-1.6740224 -0.90033305 -2.9738212
-1.7046986 -0.90033305 -2.974929
-1.7354207 -0.90033305 -2.9762957
-1.7658584 -0.90033305 -2.9760737
-1.796848 -0.90033305 -2.9789338
-1.8279152 -0.90033305 -2.9822252
-1.8585544 -0.90033305 -2.983129
-1.6435504 -0.87033296 -2.9738495
-1.6743927 -0.87033296 -2.975888
-1.7045369 -0.87033296 -2.9740274
-1.7358739 -0.87033296 -2.9788263
-1.7662258 -0.87033296 -2.9781258
-1.796762 -0.87033296 -2.978454
-1.8280916 -0.87033296 -2.983211
-1.8590064 -0.87033296 -2.9856532
-1.6438005 -0.840333 -2.975247
-1.6739678 -0.840333 -2.973516
-1.7047331 -0.840333 -2.975123
-1.7355163 -0.840333 -2.976829
-1.765801 -0.840333 -2.9757535
-1.7969477 -0.840333 -2.9794908
-1.8280754 -0.840333 -2.9831207
-1.858654 -0.840333 -2.983686
-1.643825 -0.810333 -2.9753835
-1.6745107 -0.810333 -2.976547
-1.7046425 -0.810333 -2.974617
-1.7357113 -0.810333 -2.9779184
-1.7663438 -0.810333 -2.9787846
-1.7968619 -0.810333 -2.979011
-1.8283968 -0.810333 -2.9849153
-1.8588412 -0.810333 -2.9847314
-1.7457368 -1.020333 -2.9750786
-1.7334063 -0.99033296 -2.977287
-1.7424784 -0.960333 -2.9756622
-1.7364714 -0.930333 -2.9767382
-1.7392523 -0.90033305 -2.9762402
-1.729666 -0.87033296 -2.977957
-1.857449 -0.87033296 -2.985547
-1.7362366 -0.840333 -2.9767802
-1.7320523 -0.810333 -2.9775298
-1.7355301 -0.999733 -2.9769068
-1.7355301 -0.97828174 -2.9769068
-1.7355301 -0.89280796 -2.9769068
-1.8589396 -0.875149 -2.98528
-1.7355301 -0.8416151 -2.9769068
-1.8589396 -0.86417913 -2.98528
-1.7355301 -0.83787405 -2.9769068
-1.6440115 -0.78033304 -2.976424
-1.6746192 -0.78033304 -2.9771523
-1.7051263 -0.78033304 -2.977318
-1.7356207 -0.78033304 -2.9774127
-1.7662423 -0.78033304 -2.978217
-1.7971823 -0.78033304 -2.9808
-1.8282511 -0.78033304 -2.9841013
-1.8585045 -0.78033304 -2.9828517
-1.6443367 -0.750333 -2.9782398
-1.674952 -0.750333 -2.9790106
-1.7050357 -0.750333 -2.9768121
-1.7361045 -0.750333 -2.9801137
-1.7671733 -0.750333 -2.9834151
-1.7973788 -0.750333 -2.9818976
-1.8284979 -0.750333 -2.9854789
-1.8592143 -0.750333 -2.9868135
-1.6442461 -0.72033304 -2.977734
-1.6749434 -0.72033304 -2.9789634
-1.7055194 -0.72033304 -2.9795132
-1.7357159 -0.72033304 -2.9779437
-1.7669783 -0.72033304 -2.982326
-1.7974212 -0.72033304 -2.9821343
-1.8284106 -0.72033304 -2.984992
-1.8591177 -0.72033304 -2.9862742
-1.6444426 -0.690333 -2.9788315
-1.6741023 -0.690333 -2.974266
-1.7048542 -0.690333 -2.9757984
-1.7359016 -0.690333 -2.9789805
-1.7668912 -0.690333 -2.9818408
-1.7974849 -0.690333 -2.982489
-1.8288414 -0.690333 -2.9873974
-1.859041 -0.690333 -2.9858458
-1.643049 -0.66033304 -2.9710507
-1.6738381 -0.66033304 -2.972792
-1.7042811 -0.66033304 -2.9725983
-1.7357888 -0.66033304 -2.9783516
-1.7671373 -0.66033304 -2.9832137
-1.7976377 -0.66033304 -2.9833424
-1.827853 -0.66033304 -2.9818778
-1.8583014 -0.66033304 -2.981717
-1.6447423 -0.630333 -2.980505
-1.6750927 -0.630333 -2.9797962
-1.7051558 -0.630333 -2.977482
-1.7351434 -0.630333 -2.9747477
-1.7663746 -0.630333 -2.9789562
-1.7965863 -0.630333 -2.9774728
-1.827796 -0.630333 -2.9815602
-1.858577 -0.630333 -2.9832559
-1.7327554 -0.78033304 -2.9774036
-1.7245069 -0.750333 -2.9788811
-1.8521016 -0.750333 -2.986505
-1.7269819 -0.72033304 -2.978438
-1.854279 -0.72033304 -2.986115
-1.7280078 -0.690333 -2.978254
-1.8542657 -0.690333 -2.9861174
-1.7313244 -0.66033304 -2.97766
-1.7441638 -0.630333 -2.9753604
-1.8589396 -0.7615909 -2.98528
-1.8589396 -0.68697137 -2.98528
-1.7355301 -0.6467894 -2.9769068
-1.64694 -0.6252936 -2.9927745
-1.6522293 -0.62209404 -3.0223045
-1.6575184 -0.61610603 -3.0518346
-1.6628077 -0.61684984 -3.0813646
-1.6680968 -0.61833864 -3.1108947
-1.6764698 -0.6276118 -2.9874852
-1.6817591 -0.6184601 -3.0170155
-1.6870484 -0.6174607 -3.0465455
-1.6923375 -0.6196555 -3.0760756
-1.6976268 -0.616269 -3.1056056
-1.7060001 -0.6273918 -2.9821959
-1.7112894 -0.61953545 -3.0117261
-1.7165785 -0.6184969 -3.0412562
-1.7218678 -0.61379474 -3.0707862
-1.7271569 -0.6173592 -3.1003163
-1.7355301 -0.62848914 -2.9769068
-1.7408195 -0.61671084 -3.006437
-1.7461085 -0.6152074 -3.035967
-1.7513978 -0.6158345 -3.0654972
-1.7566869 -0.6181599 -3.095027
-1.7703495 -0.6190249 -3.0011477
-1.7756386 -0.6159268 -3.0306778
-1.7809279 -0.6129643 -3.0602078
-1.786217 -0.61501914 -3.089738
-1.7998796 -0.62280345 -2.9958587
-1.8051686 -0.6129626 -3.0253887
-1.810458 -0.6142577 -3.0549188
-1.815747 -0.61749905 -3.0844488
-1.8294096 -0.62446713 -2.9905694
-1.8346989 -0.61785793 -3.0200994
-1.839988 -0.6183796 -3.0496294
-1.8452773 -0.61472535 -3.0791595
-1.8589396 -0.6285898 -2.98528
-1.8642287 -0.6165835 -3.01481
-1.869518 -0.6165551 -3.0443401
-1.8748071 -0.6183576 -3.0738702
-1.8861291 -1.260333 -2.9669237
-1.9171805 -1.260333 -2.9701285
-1.9471679 -1.260333 -2.9673922
-1.9790461 -1.260333 -2.9752119
-2.0092 -1.260333 -2.9734073
-2.041438 -1.260333 -2.983237
-2.0714667 -1.260333 -2.9807305
-2.0990045 -1.260333 -2.964319
-1.888058 -1.230333 -2.9776928
-1.9185078 -1.230333 -2.977538
-1.9494698 -1.230333 -2.9802442
-1.9804766 -1.230333 -2.9831991
-2.0117302 -1.230333 -2.987533
-2.0427105 -1.230333 -2.9903417
-2.0735648 -1.230333 -2.9924448
-2.1043603 -1.230333 -2.9942212
-1.8884974 -1.2003329 -2.9801452
-1.9197586 -1.2003329 -2.9845223
-1.9499297 -1.2003329 -2.9828112
-1.9809189 -1.2003329 -2.985669
-2.0126846 -1.2003329 -2.9928622
-2.0434427 -1.2003329 -2.9944293
-2.0740013 -1.2003329 -2.9948812
-2.1059315 -1.2003329 -3.0029926
-1.888891 -1.1703329 -2.982343
-1.9199452 -1.1703329 -2.9855647
-1.9503894 -1.1703329 -2.9853773
-1.9810362 -1.1703329 -2.9863229
-2.0131226 -1.1703329 -2.9953065
-2.0435686 -1.1703329 -2.995132
-2.074439 -1.1703329 -2.9973257
-2.1063948 -1.1703329 -3.0055792
-1.8885908 -1.1403329 -2.9806674
-1.9201317 -1.1403329 -2.9866047
-1.9505374 -1.1403329 -2.9862046
-1.9813435 -1.1403329 -2.988039
-2.0130992 -1.1403329 -2.9951768
-2.0434391 -1.1403329 -2.9944096
-2.0747247 -1.1403329 -2.9989207
-2.1062622 -1.1403329 -3.0048392
-1.8887827 -1.110333 -2.981739
-1.9203181 -1.110333 -2.987646
-1.9506035 -1.110333 -2.9865732
-1.9816573 -1.110333 -2.989791
-2.0130978 -1.110333 -2.995168
-2.0436158 -1.110333 -2.9953954
-2.074812 -1.110333 -2.999407
-2.1059701 -1.110333 -3.0032082
-1.8892052 -1.080333 -2.9840977
-1.92027 -1.080333 -2.9873776
-1.9507806 -1.080333 -2.9875622
-1.9827013 -1.080333 -2.99562
-2.0128758 -1.080333 -2.9939294
-2.043644 -1.080333 -2.9955518
-2.075132 -1.080333 -3.0011938
-2.1061482 -1.080333 -3.0042024
-1.8890638 -1.0503329 -2.9833086
-1.9202998 -1.0503329 -2.9875436
-1.9509583 -1.0503329 -2.9885533
-1.9821551 -1.0503329 -2.99257
-2.0130525 -1.0503329 -2.9949155
-2.0439703 -1.0503329 -2.9973755
-2.075199 -1.0503329 -3.001568
-2.1060665 -1.0503329 -3.0037458
-1.9501977 -1.260333 -2.9689348
-2.0409124 -1.260333 -2.9831638
-2.086927 -1.260333 -2.9749222
-1.902442 -1.230333 -2.9774883
-2.0150497 -1.230333 -2.9877963
-1.8875778 -1.2003329 -2.9801507
-2.000895 -1.2003329 -2.9903316
-2.103342 -1.2003329 -3.0024595
-1.8763597 -1.1703329 -2.98216
-1.9982054 -1.1703329 -2.9908133
-2.0980117 -1.1703329 -3.0034142
-1.882606 -1.1403329 -2.9810412
-1.9960594 -1.1403329 -2.9911976
-2.0990245 -1.1403329 -3.0032327
-1.8740234 -1.110333 -2.9825785
-1.9936316 -1.110333 -2.9916325
-2.10248 -1.110333 -3.0026138
-1.8728197 -1.080333 -2.982794
-1.9776406 -1.080333 -2.9944968
-2.098775 -1.080333 -3.0032773
-1.8713934 -1.0503329 -2.9830494
-1.9868875 -1.0503329 -2.9928405
-2.0992067 -1.0503329 -3.0032
-1.8673127 -1.2739233 -2.8618705
-1.872602 -1.2681231 -2.8914006
-1.8778911 -1.2749053 -2.9209306
-1.8831804 -1.2663052 -2.9504607
-1.8968427 -1.2670394 -2.8565814
-1.902132 -1.2706496 -2.8861115
-1.9074211 -1.2690122 -2.9156415
-1.9127104 -1.2702441 -2.9451716
-1.926373 -1.2697772 -2.8512921
-1.9316621 -1.2677213 -2.8808222
-1.9369514 -1.270886 -2.9103522
-1.9422405 -1.2702308 -2.9398823
-1.955903 -1.2680511 -2.846003
-1.9611921 -1.2628925 -2.875533
-1.9664814 -1.2695079 -2.9050632
-1.9717705 -1.2653922 -2.9345932
-1.9770598 -1.2661715 -2.9641232
-1.9854329 -1.2626442 -2.8407137
-1.9907222 -1.2695609 -2.8702438
-1.9960113 -1.2650708 -2.8997738
-2.0013006 -1.2685603 -2.929304
-2.00659 -1.2668246 -2.9588342
-2.014963 -1.2709404 -2.8354247
-2.0202522 -1.2649362 -2.8649545
-2.0255413 -1.2685694 -2.8944845
-2.0308306 -1.2674569 -2.9240146
-2.03612 -1.2632239 -2.9535449
-2.041409 -1.2604947 -2.983075
-2.0444932 -1.2647886 -2.8301353
-2.0497823 -1.2676599 -2.8596654
-2.0550716 -1.2661548 -2.8891954
-2.0603607 -1.262915 -2.9187255
-2.06565 -1.269843 -2.9482558
-2.0709393 -1.2623179 -2.9777858
-2.0740232 -1.268335 -2.8248463
-2.0793123 -1.2660607 -2.854376
-2.0846016 -1.2614815 -2.8839061
-2.0898907 -1.2695216 -2.9134362
-2.09518 -1.264352 -2.9429665
-1.9179997 -1.2447146 -2.974702
-1.9475298 -1.2580929 -2.9694126
-2.1004694 -1.2582719 -2.9724965
-1.8884697 -1.2021329 -2.979991
-2.011879 -1.2256541 -2.9883642
-2.1057584 -1.2037673 -3.0020266
-1.9823492 -1.0898883 -2.9936533
-1.9823492 -1.0609899 -2.9936533
-1.8890402 -1.020333 -2.983177
-1.9204772 -1.020333 -2.988534
-1.9508138 -1.020333 -2.9877465
-1.9823127 -1.020333 -2.9934497
-2.0132306 -1.020333 -2.9959097
-2.044023 -1.020333 -2.9976695
-2.075325 -1.020333 -3.002272
-2.1062431 -1.020333 -3.0047317
-1.8892183 -0.99033296 -2.9841712
-1.9202826 -0.99033296 -2.9874475
-1.95069 -0.99033296 -2.9870567
-1.9824908 -0.99033296 -2.994444
-2.012889 -0.99033296 -2.9940028
-2.0441778 -0.99033296 -2.9985328
-2.075503 -0.99033296 -3.003266
-2.1059015 -0.99033296 -3.0028253
-1.8896546 -0.960333 -2.9866073
-1.9201593 -0.960333 -2.986759
-1.9509714 -0.960333 -2.9886265
-1.9821491 -0.960333 -2.992537
-2.0130668 -0.960333 -2.994995
-2.044763 -0.960333 -3.0018
-2.0751615 -0.960333 -3.0013592
-2.1060796 -0.960333 -3.0038192
-1.8899028 -0.930333 -2.9879925
-1.920619 -0.930333 -2.9893255
-1.9509106 -0.930333 -2.988287
-1.9823258 -0.930333 -2.9935231
-2.0132437 -0.930333 -2.995983
-2.0445275 -0.930333 -3.0004854
-2.0753384 -0.930333 -3.0023465
-2.1062562 -0.930333 -3.004805
-1.890089 -0.90033305 -2.9890318
-1.92026 -0.90033305 -2.9873207
-1.9517953 -0.90033305 -2.9932268
-1.9825039 -0.90033305 -2.994517
-2.012902 -0.90033305 -2.9940763
-2.044598 -0.90033305 -3.0008795
-2.0755162 -0.90033305 -3.0033393
-2.1067564 -0.90033305 -3.0075989
-1.8897297 -0.87033296 -2.9870262
-1.9204462 -0.87033296 -2.9883614
-1.9519813 -0.87033296 -2.994265
-1.9824221 -0.87033296 -2.9940608
-2.013604 -0.87033296 -2.9979944
-2.0447762 -0.87033296 -3.0018735
-2.0753934 -0.87033296 -3.002654
-2.1071305 -0.87033296 -3.0096862
-1.8901043 -0.840333 -2.9891174
-1.9200871 -0.840333 -2.9863563
-1.9516807 -0.840333 -2.9925869
-1.9825985 -0.840333 -2.9950466
-2.0142944 -0.840333 -3.0018497
-2.044693 -0.840333 -3.001409
-2.0754952 -0.840333 -3.0032227
-2.107307 -0.840333 -3.010672
-1.8898296 -0.810333 -2.9875834
-1.9203975 -0.810333 -2.9880893
-1.9520824 -0.810333 -2.9948292
-1.982517 -0.810333 -2.9945905
-2.01406 -0.810333 -3.0005412
-2.0448709 -0.810333 -3.002403
-2.0758097 -0.810333 -3.0049777
-2.1069655 -0.810333 -3.0087652
-1.8690643 -1.020333 -2.9834666
-1.9831254 -1.020333 -2.9935143
-2.0954494 -1.020333 -3.003873
-1.8688722 -0.99033296 -2.9835012
-1.9804189 -0.99033296 -2.993999
-2.1008947 -0.99033296 -3.0028977
-1.8672309 -0.960333 -2.9837952
-1.9866033 -0.960333 -2.9928913
-2.0989273 -0.960333 -3.0032501
-1.867367 -0.930333 -2.9837706
-1.9828458 -0.930333 -2.9935644
-2.0951698 -0.930333 -3.0039232
-1.864615 -0.90033305 -2.9842637
-1.9782996 -0.90033305 -2.9943786
-2.0872626 -0.90033305 -3.0053394
-1.9798717 -0.87033296 -2.994097
-2.0870535 -0.87033296 -3.0053768
-1.8631454 -0.840333 -2.9845269
-1.9770391 -0.840333 -2.9946043
-2.086907 -0.840333 -3.005403
-1.860929 -0.810333 -2.9849238
-1.9766417 -0.810333 -2.9946756
-2.0841084 -0.810333 -3.0059044
-1.9823492 -1.0141854 -2.9936533
-1.9823492 -0.97789705 -2.9936533
-1.9823492 -0.9263985 -2.9936533
-1.8902895 -0.78033304 -2.9901514
-1.9208813 -0.78033304 -2.9907904
-1.9519951 -0.78033304 -2.994342
-1.9824395 -0.78033304 -2.994159
-2.0142467 -0.78033304 -3.001583
-2.0446906 -0.78033304 -3.0013962
-2.0764432 -0.78033304 -3.008515
-2.1074033 -0.78033304 -3.01121
-1.8899305 -0.750333 -2.9881468
-1.9206467 -0.750333 -2.9894795
-1.952182 -0.750333 -2.9953864
-1.9823523 -0.750333 -2.9936714
-2.0140479 -0.750333 -3.0004725
-2.0448768 -0.750333 -3.0024362
-2.0766618 -0.750333 -3.0097358
-2.1072032 -0.750333 -3.0100932
-1.8901165 -0.72033304 -2.9891858
-1.9211626 -0.72033304 -2.9923606
-1.951823 -0.72033304 -2.993381
-1.9825215 -0.72033304 -2.9946165
-2.014116 -0.72033304 -3.0008535
-2.044687 -0.72033304 -3.0013766
-2.076316 -0.72033304 -3.0078053
-2.1072383 -0.72033304 -3.0102892
-1.8897574 -0.690333 -2.9871807
-1.9207294 -0.690333 -2.9899426
-1.9517369 -0.690333 -2.992901
-1.9827068 -0.690333 -2.9956498
-2.0137148 -0.690333 -2.998613
-2.0448189 -0.690333 -3.0021129
-2.0764859 -0.690333 -3.0087528
-2.107339 -0.690333 -3.0108497
-1.8893526 -0.66033304 -2.9849207
-1.9208052 -0.66033304 -2.9903655
-1.9516499 -0.66033304 -2.9924147
-1.9831853 -0.66033304 -2.9983225
-2.0141745 -0.66033304 -3.0011802
-2.0447197 -0.66033304 -3.0015588
-2.0751193 -0.66033304 -3.001123
-2.1057758 -0.66033304 -3.0021229
-1.888974 -0.630333 -2.982807
-1.921691 -0.630333 -2.995311
-1.9523313 -0.630333 -2.9962199
-1.9834888 -0.630333 -3.0000162
-2.0144749 -0.630333 -3.0028572
-2.0452487 -0.630333 -3.0045125
-2.0753913 -0.630333 -3.0026426
-2.106597 -0.630333 -3.0067077
-1.8648696 -0.78033304 -2.9842181
-1.9794259 -0.78033304 -2.9941769
-2.0727262 -0.78033304 -3.0079432
-1.9822075 -0.750333 -2.9936788
-2.0703185 -0.750333 -3.0083742
-1.977612 -0.72033304 -2.9945018
-2.0748038 -0.72033304 -3.007571
-1.9747334 -0.690333 -2.9950175
-2.0729413 -0.690333 -3.0079045
-1.8726313 -0.66033304 -2.982828
-1.9700353 -0.66033304 -2.995859
-2.1052618 -0.66033304 -3.0021155
-1.8748024 -0.630333 -2.982439
-1.9616687 -0.630333 -2.9973574
-2.0905433 -0.630333 -3.0047517
-2.0762284 -0.7914022 -3.0073156
-2.0762284 -0.68446 -3.0073156
-1.8937588 -0.6195603 -3.009521
-1.8990481 -0.61904556 -3.039051
-1.9043372 -0.61680454 -3.068581
-1.9232888 -0.6264941 -3.004232
-1.9285781 -0.617792 -3.033762
-1.9338672 -0.6198116 -3.0632918
-1.9528191 -0.6288152 -2.9989426
-1.9581082 -0.6212299 -3.0284727
-1.9633975 -0.6173253 -3.0580027
-1.9876382 -0.6215669 -3.0231833
-1.9929276 -0.6201069 -3.0527134
-2.0171683 -0.6256236 -3.0178943
-2.0224574 -0.61957926 -3.0474243
-2.0466983 -0.62590003 -3.012605
-2.0519874 -0.6227273 -3.042135
-2.0762284 -0.62832195 -3.0073156
-2.0815177 -0.618716 -3.0368457
-2.1110477 -0.62167263 -3.0315566
-2.1085277 -1.260333 -2.8473299
-2.109065 -1.260333 -2.85033
-2.1239634 -1.260333 -2.9335077
-2.1251607 -1.260333 -2.9401925
-2.133238 -1.260333 -2.9852898
-2.1477911 -1.260333 -2.8963828
-2.1495452 -1.260333 -2.9061754
-2.1618488 -1.260333 -2.9748683
-2.1864707 -1.260333 -2.9421766
-2.1914253 -1.260333 -2.9698381
-2.1950202 -1.260333 -2.9899085
-2.1958933 -1.260333 -2.8246255
-2.1984537 -1.260333 -2.8389194
-2.224326 -1.260333 -2.983366
-2.248757 -1.260333 -2.9496093
-2.2743373 -1.260333 -2.9222682
-2.2796476 -1.260333 -2.9519165
-2.2858303 -1.260333 -2.986434
-2.3134806 -1.260333 -2.9706502
-2.337606 -1.260333 -2.9351864
-2.3439522 -1.260333 -2.9706178
-2.1364386 -1.230333 -3.0031583
-2.1672146 -1.230333 -3.0048249
-2.197838 -1.230333 -3.0056407
-2.228619 -1.230333 -3.0073364
-2.1370485 -1.2003329 -3.0065627
-2.167793 -1.2003329 -3.0080547
-2.1986632 -1.2003329 -3.0102472
-2.1367931 -1.1703329 -3.0051384
-2.1680698 -1.1703329 -3.0095994
-2.1992278 -1.1703329 -3.0134
-2.1368916 -1.1403329 -3.0056872
-2.1682394 -1.1403329 -3.0105472
-2.198995 -1.1403329 -3.012101
-2.1370609 -1.110333 -3.0066326
-2.168066 -1.110333 -3.0095785
-2.136983 -1.080333 -3.0061975
-2.1679852 -1.080333 -3.0091283
-2.1368327 -1.0503329 -3.005359
-2.1689386 -1.0503329 -3.0144515
-2.106807 -1.260333 -2.8494515
-2.1208425 -1.260333 -2.93837
-2.106119 -1.260333 -2.9714847
-2.1103334 -1.260333 -2.84882
-2.1429446 -1.260333 -2.9039335
-2.1269355 -1.260333 -2.9372787
-2.1524065 -1.260333 -2.9022388
-2.1760461 -1.260333 -2.9589598
-2.1815937 -1.260333 -2.9884436
-2.187104 -1.260333 -2.8350694
-2.1955183 -1.260333 -2.955472
-2.2025614 -1.260333 -2.8323007
-2.2289135 -1.260333 -2.9799678
-2.254013 -1.260333 -2.944995
-2.268908 -1.260333 -2.9728043
-2.286174 -1.260333 -2.9392345
-2.3192487 -1.260333 -2.9637878
-2.3302946 -1.260333 -2.9922867
-2.122642 -1.230333 -2.9990025
-2.2359138 -1.230333 -3.0091915
-2.223896 -1.2003329 -3.011344
-2.2063239 -1.1703329 -3.0144913
-2.2087858 -1.1403329 -3.0140505
-2.1979463 -1.110333 -3.015992
-2.196622 -1.080333 -3.0162292
-2.1949801 -1.0503329 -3.0165234
-2.1035533 -1.2667518 -2.819557
-2.1141317 -1.2691983 -2.878617
-2.1194208 -1.2638675 -2.908147
-2.1299994 -1.2668374 -2.9672074
-2.1330833 -1.2608833 -2.8142676
-2.1383724 -1.2679701 -2.8437977
-2.1436617 -1.2635462 -2.8733277
-2.1542401 -1.2671872 -2.932388
-2.1595294 -1.2621379 -2.961918
-2.1626134 -1.2667356 -2.8089786
-2.1679025 -1.26334 -2.8385086
-2.1731918 -1.2674471 -2.8680387
-2.1784809 -1.2668769 -2.8975687
-2.1837702 -1.2618161 -2.9270988
-2.1943486 -1.2623329 -2.9861588
-2.1921434 -1.2642735 -2.8036892
-2.2027218 -1.266821 -2.8627493
-2.208011 -1.2614883 -2.8922794
-2.2133002 -1.2666943 -2.9218097
-2.2185895 -1.2654127 -2.9513397
-2.2238786 -1.2612969 -2.9808698
-2.2216735 -1.2609429 -2.7984002
-2.2269626 -1.2677166 -2.8279302
-2.232252 -1.2623839 -2.8574603
-2.237541 -1.2675142 -2.88699
-2.2428303 -1.2650913 -2.9165204
-2.2481196 -1.2609506 -2.9460504
-2.2512035 -1.2686055 -2.7931108
-2.2564926 -1.2634034 -2.822641
-2.261782 -1.2679287 -2.852171
-2.267071 -1.2659869 -2.881701
-2.2723603 -1.2618712 -2.9112313
-2.2829387 -1.2644131 -2.9702914
-2.2807336 -1.2641684 -2.7878218
-2.286023 -1.268784 -2.8173518
-2.291312 -1.2668757 -2.8468819
-2.2966013 -1.2615496 -2.8764117
-2.3018906 -1.2669158 -2.905942
-2.3071797 -1.2662077 -2.935472
-2.312469 -1.2613119 -2.965002
-2.3049743 -1.265264 -2.7530024
-2.3102636 -1.2687999 -2.7825325
-2.315553 -1.2677714 -2.8120625
-2.320842 -1.2625277 -2.8415926
-2.3261313 -1.2675532 -2.8711226
-2.3314204 -1.266128 -2.900653
-2.3367097 -1.2610303 -2.930183
-2.3472881 -1.2643714 -2.989243
-2.1088424 -1.2600557 -2.849087
-2.12471 -1.2599194 -2.9376774
-2.1352885 -1.247639 -2.9967375
-2.1489508 -1.2596906 -2.9028578
-2.1648185 -1.2549933 -2.9914482
-2.1890595 -1.2591091 -2.9566288
-2.1974325 -1.2592595 -2.8332193
-2.2534087 -1.2561517 -2.9755805
-2.258698 -1.2468712 -3.0051105
-2.2776496 -1.2584984 -2.9407613
-2.288228 -1.2551239 -2.9998214
-2.3177583 -1.2551929 -2.994532
-2.3419988 -1.2582068 -2.959713
-2.229168 -1.2090123 -3.0103998
-2.199638 -1.1142261 -3.015689
-2.1366425 -1.020333 -3.004297
-2.1691167 -1.020333 -3.0154455
-2.13756 -0.99033296 -3.0094182
-2.1692936 -0.99033296 -3.0164325
-2.199443 -0.99033296 -3.0146017
-2.1380353 -0.960333 -3.0120728
-2.1686935 -0.960333 -3.0130823
-2.1996102 -0.960333 -3.0155344
-2.137694 -0.930333 -3.010166
-2.1688702 -0.930333 -3.0140684
-2.1378703 -0.90033305 -3.011152
-2.1688502 -0.90033305 -3.013957
-2.1380484 -0.87033296 -3.0121462
-2.1687067 -0.87033296 -3.0131557
-2.137707 -0.840333 -3.0102394
-2.169084 -0.840333 -3.0152628
-2.1380095 -0.810333 -3.0119295
-2.1692328 -0.810333 -3.016094
-2.1911917 -1.020333 -3.017202
-2.2032998 -0.99033296 -3.015033
-2.199916 -0.960333 -3.0156393
-2.1964395 -0.930333 -3.0162618
-2.1981783 -0.90033305 -3.0159504
-2.185523 -0.87033296 -3.018217
-2.1835728 -0.840333 -3.0185664
-2.1843753 -0.810333 -3.0184226
-2.199638 -1.0005271 -3.015689
-2.199638 -0.95566094 -3.015689
-2.1383204 -0.78033304 -3.0136652
-2.1384904 -0.750333 -3.0146136
-2.1387708 -0.72033304 -3.0161788
-2.138169 -0.690333 -3.01282
-2.1693277 -0.690333 -3.016623
-2.1375146 -0.66033304 -3.0091653
-2.1683028 -0.66033304 -3.0109005
-2.1992154 -0.66033304 -3.0133307
-2.1378872 -0.630333 -3.0112464
-2.1688385 -0.630333 -3.0138922
-2.1680644 -0.78033304 -3.0213442
-2.1666398 -0.750333 -3.0215993
-2.1668918 -0.72033304 -3.0215542
-2.1833704 -0.690333 -3.0186026
-2.2046528 -0.66033304 -3.0147908
-2.1840172 -0.630333 -3.018487
-2.1701078 -0.7844796 -3.0209782
-2.1701078 -0.71326274 -3.0209782
-2.199638 -0.6710988 -3.015689
-2.199638 -0.65015626 -3.015689
-2.1405778 -0.6248084 -3.0262675
-2.1701078 -0.62513214 -3.0209782
-0.6752003 -1.260333 -3.5229988
-0.698609 -1.260333 -3.4835336
-0.7222326 -1.260333 -3.4452682
-0.67508584 -1.230333 -3.5223598
-0.6959065 -1.230333 -3.4684453
-0.7223208 -1.230333 -3.4457607
-0.6754353 -1.2003329 -3.5243108
-0.70141864 -1.2003329 -3.4992201
-0.7225405 -1.2003329 -3.4469872
-0.67601347 -1.1703329 -3.5275393
-0.6998586 -1.1703329 -3.4905105
-0.7236078 -1.1703329 -3.4529462
-0.6987541 -1.1403329 -3.4843435
-0.7233502 -1.1403329 -3.451508
-0.70068705 -1.110333 -3.4951358
-0.7218051 -1.110333 -3.4428813
-0.6767804 -1.080333 -3.5318208
-0.7002867 -1.080333 -3.4929004
-0.7240693 -1.080333 -3.455523
-0.7002685 -1.0503329 -3.492799
-0.7237421 -1.0503329 -3.4536963
-0.6712265 -1.260333 -3.5332663
-0.6890879 -1.260333 -3.4995897
-0.70930827 -1.260333 -3.4654906
-0.66891026 -1.230333 -3.5336812
-0.68391615 -1.230333 -3.500516
-0.6967223 -1.230333 -3.4677448
-0.6706364 -1.2003329 -3.533372
-0.71572965 -1.2003329 -3.4643404
-0.7023822 -1.2003329 -3.4972086
-0.67441034 -1.1703329 -3.532696
-0.69204 -1.1703329 -3.4990609
-0.71649003 -1.1703329 -3.4642043
-0.69266605 -1.1403329 -3.4989488
-0.68018097 -1.1403329 -3.5316625
-0.711285 -1.1403329 -3.4651365
-0.6991608 -1.110333 -3.4977856
-0.67783177 -1.110333 -3.532083
-0.71292996 -1.110333 -3.4648418
-0.67646843 -1.080333 -3.5323274
-0.69843835 -1.080333 -3.4979148
-0.71910655 -1.080333 -3.4637356
-0.6969886 -1.0503329 -3.4981747
-0.68387127 -1.0503329 -3.5310016
-0.7195191 -1.0503329 -3.4636617
-0.46265382 -1.2693307 -3.3572822
-0.467943 -1.274574 -3.3868122
-0.47323224 -1.268894 -3.4163423
-0.47852144 -1.2748475 -3.4458723
-0.48381066 -1.2695216 -3.4754026
-0.4890999 -1.2768872 -3.5049326
-0.4943891 -1.2724582 -3.5344627
-0.4996783 -1.280274 -3.5639927
-0.49218386 -1.2721242 -3.351993
-0.4974731 -1.270137 -3.3815231
-0.5027623 -1.2769601 -3.4110532
-0.5080515 -1.2704104 -3.4405832
-0.5133407 -1.2772336 -3.4701135
-0.5186299 -1.2721609 -3.4996436
-0.52391917 -1.2795951 -3.5291734
-0.52920836 -1.2763143 -3.5587034
-0.5217139 -1.2719698 -3.346704
-0.52700317 -1.2728001 -3.376234
-0.53229237 -1.27177 -3.4057639
-0.53758156 -1.2781292 -3.435294
-0.54287076 -1.27348 -3.4648242
-0.54816 -1.2804235 -3.4943542
-0.5534492 -1.2766167 -3.5238843
-0.5587384 -1.2728097 -3.5534143
-0.551244 -1.2738249 -3.3414147
-0.5565332 -1.2727005 -3.3709447
-0.5618224 -1.2736322 -3.4004748
-0.5671116 -1.2743373 -3.4300048
-0.5724008 -1.275132 -3.4595351
-0.57769 -1.2763194 -3.4890652
-0.58297926 -1.2725126 -3.5185952
-0.58826846 -1.2806722 -3.5481253
-0.58077407 -1.2743074 -3.3361254
-0.58606327 -1.2746816 -3.3656554
-0.59135246 -1.2745808 -3.3951855
-0.59664166 -1.2757515 -3.4247155
-0.60193086 -1.2766309 -3.4542458
-0.6072201 -1.2726747 -3.4837759
-0.6125093 -1.2811172 -3.513306
-0.6177985 -1.2768538 -3.542836
-0.6103041 -1.2702736 -3.3308363
-0.6155933 -1.2766935 -3.3603663
-0.6208825 -1.2713608 -3.3898964
-0.6261717 -1.2781838 -3.4194264
-0.63146096 -1.2723632 -3.4489565
-0.63675016 -1.2804742 -3.4784865
-0.64203936 -1.2771615 -3.5080166
-0.64732856 -1.2768898 -3.5375466
-0.63983417 -1.2783115 -3.325547
-0.64512336 -1.2722564 -3.355077
-0.65041256 -1.2790794 -3.384607
-0.65570176 -1.2737467 -3.4141371
-0.660991 -1.2809505 -3.4436674
-0.6662802 -1.2757901 -3.4731975
-0.6715694 -1.2714374 -3.5027275
-0.6693642 -1.2736869 -3.320258
-0.6746534 -1.2799683 -3.349788
-0.6799426 -1.2746391 -3.3793178
-0.6852318 -1.2802486 -3.4088478
-0.69052106 -1.2755325 -3.4383783
-0.69581026 -1.2695831 -3.4679081
-0.69889426 -1.2762698 -3.3149686
-0.70418346 -1.2761737 -3.3444986
-0.70947266 -1.2764702 -3.3740287
-0.71476185 -1.2758114 -3.4035587
-0.7200511 -1.2691134 -3.433089
-0.7010995 -1.2030342 -3.4974382
-0.7010995 -1.1938021 -3.4974382
-0.6768586 -1.1573527 -3.5322576
-0.6768586 -1.0895637 -3.5322576
-0.6768586 -1.0787517 -3.5322576
-0.70102066 -1.020333 -3.4969983
-0.7227334 -1.020333 -3.448064
-0.70091116 -0.99033296 -3.496387
-0.7250534 -0.99033296 -3.4610174
-0.70069635 -0.960333 -3.4951873
-0.7246696 -0.960333 -3.4588742
-0.70146275 -0.930333 -3.4994667
-0.7240921 -0.930333 -3.4556503
-0.70123744 -0.90033305 -3.4982088
-0.7253772 -0.90033305 -3.462825
-0.7011337 -0.87033296 -3.4976292
-0.7252941 -0.87033296 -3.462361
-0.7025591 -0.840333 -3.5055876
-0.7245877 -0.840333 -3.458417
-0.7021587 -0.810333 -3.5033517
-0.7260679 -0.810333 -3.4666815
-0.68387127 -1.050333 -3.5310016
-0.7007202 -1.020333 -3.4975061
-0.6826031 -1.020333 -3.5312285
-0.7165097 -1.020333 -3.4642007
-0.7004386 -0.99033296 -3.4975567
-0.67782235 -0.99033296 -3.532085
-0.72385347 -0.99033296 -3.4628854
-0.69903266 -0.960333 -3.4978085
-0.6849797 -0.960333 -3.5308027
-0.72280234 -0.960333 -3.4630737
-0.68361115 -0.930333 -3.531048
-0.7194475 -0.930333 -3.4636745
-0.70318854 -0.930333 -3.497064
-0.68112427 -0.90033305 -3.5314934
-0.70163333 -0.90033305 -3.4973426
-0.68724835 -0.87033296 -3.5303965
-0.7251655 -0.87033296 -3.4626503
-0.70126855 -0.87033296 -3.497408
-0.68838584 -0.840333 -3.5301929
-0.72134554 -0.840333 -3.4633346
-0.7068465 -0.840333 -3.496409
-0.6903803 -0.810333 -3.5298357
-0.7054465 -0.810333 -3.4966598
-0.7010995 -0.94455326 -3.4974382
-0.7253403 -0.90119433 -3.462619
-0.7253403 -0.88479733 -3.462619
-0.7253403 -0.8247653 -3.462619
-0.7030871 -0.78033304 -3.508535
-0.7253095 -0.78033304 -3.462447
-0.7028791 -0.750333 -3.507374
-0.7252462 -0.750333 -3.4620934
-0.70240355 -0.72033304 -3.5047193
-0.7267699 -0.72033304 -3.4706006
-0.7004697 -0.690333 -3.493922
-0.7272186 -0.690333 -3.4731057
-0.6748643 -0.66033304 -3.521123
-0.69819355 -0.66033304 -3.4812143
-0.72114825 -0.66033304 -3.4392142
-0.6763662 -0.630333 -3.5295084
-0.70053947 -0.630333 -3.4943116
-0.702435 -0.630333 -3.5048947
-0.72495663 -0.630333 -3.4604769
-0.72612077 -0.630333 -3.4669764
-0.6903803 -0.810333 -3.5298357
-0.68886495 -0.78033304 -3.530107
-0.72522813 -0.78033304 -3.462639
-0.7112524 -0.78033304 -3.4956198
-0.6870878 -0.750333 -3.5304253
-0.7248205 -0.750333 -3.462712
-0.708403 -0.750333 -3.49613
-0.6904385 -0.72033304 -3.5298252
-0.7136661 -0.72033304 -3.4951873
-0.6981261 -0.690333 -3.4979708
-0.6795893 -0.690333 -3.5317683
-0.66465926 -0.66033304 -3.5344424
-0.69103956 -0.66033304 -3.4992402
-0.7061546 -0.66033304 -3.4660554
-0.6752096 -0.630333 -3.5325527
-0.6977906 -0.630333 -3.498031
-0.6832242 -0.630333 -3.5311174
-0.72375154 -0.630333 -3.4629035
-0.7089245 -0.630333 -3.4960368
-0.7253403 -0.7812483 -3.462619
-0.7253403 -0.7456789 -3.462619
-0.7010995 -0.70174736 -3.4974382
-0.6768586 -0.68351334 -3.5322576
-0.7253403 -0.6801062 -3.462619
-0.7063887 -0.6344357 -3.5269682
-0.73062956 -0.633835 -3.492149
-0.73591876 -0.63196695 -3.521679
-0.6768586 -0.6295757 -3.5322576
-0.7010995 -0.62926143 -3.4974382
-0.7253403 -0.6299596 -3.462619
-0.74489075 -1.260333 -3.4016128
-0.7696314 -1.260333 -3.369584
-0.79215604 -1.260333 -3.3251832
-0.8174063 -1.260333 -3.2959995
-0.8423528 -1.260333 -3.2651196
-0.7455961 -1.230333 -3.405551
-0.7689897 -1.230333 -3.3660011
-0.79327875 -1.230333 -3.3314512
-0.8178249 -1.230333 -3.2983365
-0.84221715 -1.230333 -3.2643623
-0.7463727 -1.2003329 -3.4098868
-0.7689407 -1.2003329 -3.3657277
-0.793716 -1.2003329 -3.3338923
-0.8169193 -1.2003329 -3.2932806
-0.8428946 -1.2003329 -3.2681448
-0.7458627 -1.1703329 -3.4070394
-0.77079636 -1.1703329 -3.3760881
-0.793469 -1.1703329 -3.3325133
-0.8190608 -1.1703329 -3.3052368
-0.8431034 -1.1703329 -3.2693105
-0.7456585 -1.1403329 -3.405899
-0.7701843 -1.1403329 -3.3726707
-0.7944033 -1.1403329 -3.3377297
-0.81874627 -1.1403329 -3.3034806
-0.84291106 -1.1403329 -3.2682366
-0.7456609 -1.110333 -3.4059124
-0.7679781 -1.110333 -3.3603532
-0.79249275 -1.110333 -3.3270628
-0.8162138 -1.110333 -3.2893414
-0.8438229 -1.110333 -3.2733276
-0.74556506 -1.080333 -3.4053774
-0.76972544 -1.080333 -3.370109
-0.7923397 -1.080333 -3.326208
-0.8174629 -1.080333 -3.2963157
-0.84387726 -1.080333 -3.273631
-0.74639064 -1.0503329 -3.4099867
-0.7695151 -1.0503329 -3.3689346
-0.7938858 -1.0503329 -3.3348408
-0.8173235 -1.0503329 -3.2955372
-0.8437891 -1.0503329 -3.2731388
-0.72832483 -1.260333 -3.431607
-0.74798316 -1.260333 -3.3976083
-0.7900457 -1.260333 -3.3291197
-0.7735119 -1.260333 -3.3625584
-0.81929904 -1.260333 -3.2934027
-0.7284748 -1.230333 -3.43158
-0.75215584 -1.230333 -3.396861
-0.77049065 -1.230333 -3.3630996
-0.7963101 -1.230333 -3.3279977
-0.82147825 -1.230333 -3.2930121
-0.7329529 -1.2003329 -3.430778
-0.7535105 -1.2003329 -3.3966184
-0.7709247 -1.2003329 -3.3630219
-0.8165388 -1.2003329 -3.293897
-0.79716 -1.2003329 -3.3278453
-0.7336327 -1.1703329 -3.4306564
-0.757169 -1.1703329 -3.3959632
-0.7758746 -1.1703329 -3.3621352
-0.80056393 -1.1703329 -3.3272357
-0.8276201 -1.1703329 -3.291912
-0.7338146 -1.1403329 -3.4306238
-0.75214064 -1.1403329 -3.3968637
-0.77650964 -1.1403329 -3.3620214
-0.8061857 -1.1403329 -3.3262286
-0.8265461 -1.1403329 -3.2921047
-0.7291791 -1.110333 -3.4314542
-0.76546633 -1.110333 -3.3639996
-0.74991 -1.110333 -3.3972633
-0.7915404 -1.110333 -3.328852
-0.81141204 -1.110333 -3.2948153
-0.7343823 -1.080333 -3.430522
-0.7512933 -1.080333 -3.3970156
-0.79094 -1.080333 -3.3289595
-0.77388024 -1.080333 -3.3624926
-0.82126504 -1.080333 -3.2930505
-0.7325553 -1.0503329 -3.4308493
-0.75633335 -1.0503329 -3.3961127
-0.7730283 -1.0503329 -3.3626451
-0.7997327 -1.0503329 -3.3273845
-0.8199924 -1.0503329 -3.2932785
-0.7284243 -1.2783713 -3.3096795
-0.7337135 -1.2771266 -3.3392096
-0.7390027 -1.2768244 -3.3687396
-0.7442919 -1.2640753 -3.3982697
-0.75795436 -1.2737439 -3.3043902
-0.76324356 -1.2791154 -3.3339202
-0.76853275 -1.2672007 -3.3634503
-0.7874844 -1.2788885 -3.2991009
-0.81701446 -1.2633795 -3.2938118
-0.7927736 -1.248544 -3.328631
-0.81701446 -1.2034855 -3.2938118
-0.81701446 -1.1987685 -3.2938118
-0.76853275 -1.1176689 -3.3634503
-0.7927736 -1.1130615 -3.328631
-0.81701446 -1.1228302 -3.2938118
-0.76853275 -1.0979192 -3.3634503
-0.81701446 -1.0876623 -3.2938118
-0.7927736 -1.0742977 -3.328631
-0.74689287 -1.020333 -3.4127908
-0.7689246 -1.020333 -3.365638
-0.79369247 -1.020333 -3.3337612
-0.81694484 -1.020333 -3.2934232
-0.8423829 -1.020333 -3.2652879
-0.7467971 -0.99033296 -3.412256
-0.7707825 -0.99033296 -3.3760104
-0.7962289 -0.99033296 -3.3479223
-0.8193536 -0.99033296 -3.3068712
-0.8436066 -0.99033296 -3.2721198
-0.74728215 -0.960333 -3.414964
-0.7706212 -0.960333 -3.37511
-0.7942833 -0.960333 -3.3370597
-0.8189833 -0.960333 -3.3048038
-0.8447597 -0.960333 -3.2785578
-0.74812615 -0.930333 -3.4196763
-0.7727738 -0.930333 -3.3871284
-0.7947328 -0.930333 -3.339569
-0.8208257 -0.930333 -3.3150902
-0.84516376 -0.930333 -3.2808137
-0.7477256 -0.90033305 -3.4174402
-0.7720898 -0.90033305 -3.3833094
-0.79461706 -0.90033305 -3.338923
-0.81957906 -0.90033305 -3.30813
-0.84552413 -0.90033305 -3.2828255
-0.7491236 -0.87033296 -3.425245
-0.7713417 -0.87033296 -3.3791327
-0.79524016 -0.87033296 -3.3424017
-0.81932956 -0.87033296 -3.306737
-0.8457456 -0.87033296 -3.2840621
-0.7490541 -0.840333 -3.4248571
-0.77223915 -0.840333 -3.3841434
-0.7962533 -0.840333 -3.3480587
-0.81858325 -0.840333 -3.3025703
-0.84556085 -0.840333 -3.2830305
-0.748476 -0.810333 -3.4216297
-0.7727525 -0.810333 -3.3870096
-0.795617 -0.810333 -3.344506
-0.8196215 -0.810333 -3.3083673
-0.8442495 -0.810333 -3.2757092
-0.73479736 -1.020333 -3.4304478
-0.7545351 -1.020333 -3.3964348
-0.77096266 -1.020333 -3.3630152
-0.8166846 -1.020333 -3.293871
-0.80043066 -1.020333 -3.3272595
-0.73861694 -0.99033296 -3.4297636
-0.75806886 -0.99033296 -3.395802
-0.78480124 -0.99033296 -3.3605363
-0.8042048 -0.99033296 -3.3265836
-0.83086634 -0.99033296 -3.2913308
-0.7368729 -0.960333 -3.4300761
-0.76082075 -0.960333 -3.395309
-0.77809054 -0.960333 -3.3617384
-0.8089639 -0.960333 -3.3257313
-0.82767063 -0.960333 -3.291903
-0.7433466 -0.930333 -3.4289165
-0.7680688 -0.930333 -3.3940108
-0.7846141 -0.930333 -3.36057
-0.8096056 -0.930333 -3.3256164
-0.8367671 -0.930333 -3.290274
-0.74196684 -0.90033305 -3.4291635
-0.725553 -0.90033305 -3.462581
-0.7643045 -0.90033305 -3.394685
-0.7822933 -0.90033305 -3.3609855
-0.8073866 -0.90033305 -3.3260136
-0.8368733 -0.90033305 -3.2902548
-0.74733704 -0.87033296 -3.4282017
-0.7638051 -0.87033296 -3.3947744
-0.7809771 -0.87033296 -3.3612213
-0.8084599 -0.87033296 -3.3258214
-0.8389683 -0.87033296 -3.2898796
-0.7473226 -0.840333 -3.4282043
-0.7646997 -0.840333 -3.3946142
-0.79088175 -0.840333 -3.3594472
-0.8065835 -0.840333 -3.3261576
-0.83360356 -0.840333 -3.2908406
-0.74452496 -0.810333 -3.4287055
-0.72919416 -0.810333 -3.4619288
-0.7685752 -0.810333 -3.39392
-0.7872274 -0.810333 -3.3601017
-0.80600893 -0.810333 -3.3262606
-0.8346497 -0.810333 -3.2906532
-0.81701446 -1.0258458 -3.2938118
-0.81701446 -1.0198026 -3.2938118
-0.7497249 -0.78033304 -3.4286025
-0.7726494 -0.78033304 -3.3864338
-0.79619694 -0.78033304 -3.347744
-0.81999224 -0.78033304 -3.310437
-0.8464065 -0.78033304 -3.2877522
-0.87088525 -0.78033304 -3.254261
-0.74967706 -0.750333 -3.4283347
-0.77209795 -0.750333 -3.383355
-0.7964766 -0.750333 -3.3493052
-0.81989056 -0.750333 -3.3098693
-0.846619 -0.750333 -3.2889383
-0.87175137 -0.750333 -3.2590964
-0.7483318 -0.72033304 -3.4208243
-0.77317137 -0.72033304 -3.3893478
-0.795575 -0.72033304 -3.3442717
-0.82063717 -0.72033304 -3.3140376
-0.84491223 -0.72033304 -3.2794092
-0.8719711 -0.72033304 -3.260323
-0.75101304 -0.690333 -3.4357939
-0.7718052 -0.690333 -3.3817205
-0.79565 -0.690333 -3.3446898
-0.8198179 -0.690333 -3.3094635
-0.8444973 -0.690333 -3.277093
-0.87117696 -0.690333 -3.2558894
-0.74678814 -0.66033304 -3.4122062
-0.77327657 -0.66033304 -3.389935
-0.7960746 -0.66033304 -3.3470607
-0.82004493 -0.66033304 -3.3107312
-0.84559065 -0.66033304 -3.283197
-0.75326324 -0.630333 -3.448357
-0.76414084 -0.630333 -3.5090876
-0.7932296 -0.630333 -3.5013342
-0.80180955 -0.630333 -3.3790793
-0.81193674 -0.630333 -3.43562
-0.8293835 -0.630333 -3.3628693
-0.8497368 -0.630333 -3.4765034
-0.8763217 -0.630333 -3.4547708
-0.8741692 -0.630333 -3.2725954
-0.8940256 -0.630333 -3.3834553
-0.9065934 -0.630333 -3.2834644
-0.9309402 -0.630333 -3.4193947
-0.93910444 -0.630333 -3.2948184
-0.9605175 -0.630333 -3.414369
-0.96489614 -0.630333 -3.4388156
-0.7690848 -0.78033304 -3.3938289
-0.7504481 -0.78033304 -3.4276445
-0.7867719 -0.78033304 -3.3601835
-0.8125371 -0.78033304 -3.3250911
-0.84523666 -0.78033304 -3.2887568
-0.76467156 -0.750333 -3.3946192
-0.7499585 -0.750333 -3.4277322
-0.7909508 -0.750333 -3.3594348
-0.81106824 -0.750333 -3.325354
-0.84710425 -0.750333 -3.2884223
-0.7426779 -0.72033304 -3.4290361
-0.72785205 -0.72033304 -3.4621692
-0.77073777 -0.72033304 -3.3935328
-0.78639543 -0.72033304 -3.360251
-0.81261086 -0.72033304 -3.325078
-0.8380845 -0.72033304 -3.2900379
-0.73353314 -0.690333 -3.4611516
-0.7687059 -0.690333 -3.3938966
-0.75674987 -0.690333 -3.4265158
-0.7802359 -0.690333 -3.361354
-0.80861205 -0.690333 -3.3257942
-0.83103144 -0.690333 -3.2913013
-0.7255367 -0.66033304 -3.4321065
-0.7706506 -0.66033304 -3.3935483
-0.7900312 -0.66033304 -3.3595996
-0.80988187 -0.66033304 -3.3255668
-0.8422547 -0.66033304 -3.289291
-0.748078 -0.630333 -3.4890237
-0.76022923 -0.630333 -3.4563699
-0.766668 -0.630333 -3.4856942
-0.7701207 -0.630333 -3.515553
-0.79818857 -0.630333 -3.388616
-0.79995596 -0.630333 -3.418777
-0.8055066 -0.630333 -3.5092149
-0.8199764 -0.630333 -3.4456685
-0.84446484 -0.630333 -3.4717598
-0.85563475 -0.630333 -3.3783267
-0.85443544 -0.630333 -3.409019
-0.85434186 -0.630333 -3.4395132
-0.86940634 -0.630333 -3.4977698
-0.8679349 -0.630333 -3.2846913
-0.861887 -0.630333 -3.316252
-0.85826886 -0.630333 -3.3473773
-0.8804087 -0.630333 -3.3738892
-0.89101434 -0.630333 -3.463422
-0.88956714 -0.630333 -3.4941587
-0.890762 -0.630333 -3.2806027
-0.9118349 -0.630333 -3.3987381
-0.9226728 -0.630333 -3.274887
-0.93886334 -0.630333 -3.3024645
-0.94029385 -0.630333 -3.3326857
-0.93584234 -0.630333 -3.3639603
-0.93264204 -0.630333 -3.3950112
-0.9381933 -0.630333 -3.4244943
-0.7495812 -0.7844026 -3.4277997
-0.84654456 -0.76164454 -3.2885227
-0.7495812 -0.7488357 -3.4277997
-0.84654456 -0.7488727 -3.2885227
-0.7495812 -0.70718336 -3.4277997
-0.7495812 -0.6812263 -3.4277997
-0.73591876 -0.63196695 -3.521679
-0.7495812 -0.6347633 -3.4277997
-0.7654488 -0.6310267 -3.5163898
-0.77382195 -0.6550092 -3.3929803
-0.77911127 -0.6361855 -3.4225106
-0.78440046 -0.6347675 -3.4520407
-0.78968966 -0.6359229 -3.4815707
-0.7980628 -0.64303446 -3.358161
-0.82230365 -0.6484089 -3.3233418
-0.82759285 -0.6358094 -3.352872
-0.85403895 -0.63250226 -3.5005221
-0.84654456 -0.65448457 -3.2885227
-0.85183376 -0.6333751 -3.3180528
-0.85712296 -0.6305175 -3.3475826
-0.86241215 -0.63223636 -3.3771126
-0.91309905 -0.63606393 -3.4899437
-0.90560466 -0.6329618 -3.277944
-0.9320507 -0.63086677 -3.4255946
-0.96686995 -0.6315719 -3.4498353
-0.97215915 -0.63353086 -3.4793653
-0.7548704 -0.62958795 -3.4573298
-0.7601596 -0.6289646 -3.4868598
-0.79497886 -0.6279804 -3.5111008
-0.803352 -0.62932986 -3.387691
-0.8086413 -0.629202 -3.4172213
-0.8328821 -0.6253832 -3.382402
-0.8381713 -0.62629294 -3.4119322
-0.8434605 -0.6276751 -3.441462
-0.84874976 -0.6299879 -3.470992
-0.8782798 -0.62756264 -3.465703
-0.883569 -0.6289469 -3.495233
-0.8760746 -0.6286935 -3.2832334
-0.8813638 -0.62761456 -3.3127635
-0.886653 -0.6275553 -3.3422935
-0.8919422 -0.62938803 -3.3718235
-0.91089386 -0.62414306 -3.3074741
-0.91618305 -0.62517726 -3.3370042
-0.92147225 -0.62657803 -3.3665342
-0.9267615 -0.6288469 -3.3960645
-0.9351347 -0.6287701 -3.272655
-0.96158075 -0.62880266 -3.4203053
-0.97873634 -0.630333 -3.3459284
-0.9989991 -0.630333 -3.459057
-1.015072 -0.630333 -3.3786354
-1.0217639 -0.630333 -3.2458394
-1.0369914 -0.630333 -3.330855
-1.0559378 -0.630333 -3.436635
-1.0570117 -0.630333 -3.2724729
-1.0769436 -0.630333 -3.3837543
-1.093347 -0.630333 -3.3051772
-1.1179996 -0.630333 -3.4428144
-1.121187 -0.630333 -3.290452
-1.1302642 -0.630333 -3.3411312
-1.1446606 -0.630333 -3.2513497
-1.1618745 -0.630333 -3.3474567
-1.1721733 -0.630333 -3.4049544
-1.1853293 -0.630333 -3.3082488
-1.2021945 -0.630333 -3.4024076
-0.94383234 -0.630333 -3.3015745
-0.9601032 -0.630333 -3.3291376
-0.97180885 -0.630333 -3.4184732
-0.98314744 -0.630333 -3.4773972
-0.98831666 -0.630333 -3.3545616
-1.019192 -0.630333 -3.4709413
-1.0197196 -0.630333 -3.2575047
-1.0176098 -0.630333 -3.28836
-1.0192546 -0.630333 -3.318543
-1.0162003 -0.630333 -3.380045
-1.0321028 -0.630333 -3.4076738
-1.053552 -0.630333 -3.4343095
-1.0369526 -0.630333 -3.2544181
-1.0565168 -0.630333 -3.3423462
-1.05918 -0.630333 -3.3723466
-1.0758536 -0.630333 -3.4607925
-1.0651858 -0.630333 -3.2798386
-1.0951316 -0.630333 -3.3963847
-1.0935891 -0.630333 -3.4271383
-1.0989695 -0.630333 -3.24331
-1.096051 -0.630333 -3.27431
-1.0934348 -0.630333 -3.3052561
-1.119856 -0.630333 -3.3310013
-1.1315811 -0.630333 -3.450811
-1.1298257 -0.630333 -3.2377834
-1.1331599 -0.630333 -3.298141
-1.1306446 -0.630333 -3.329069
-1.1435413 -0.630333 -3.3572364
-1.164651 -0.630333 -3.3839328
-1.154356 -0.630333 -3.263867
-1.1744854 -0.630333 -3.290739
-1.1753249 -0.630333 -3.3515437
